# .PCD v0.7 - Point Cloud Data file format
VERSION 0.7
FIELDS x y z
SIZE 4 4 4
TYPE F F F
COUNT 1 1 1
WIDTH 1528
HEIGHT 1
VIEWPOINT 0 0 0 1 0 0 0
POINTS 1528
DATA ascii
-0.45271087 5.5454149 0.20114262
-0.15147221 5.5528903 0.20109542
0.15559492 5.5551872 0.20097956
0.45535758 5.5404353 0.20087227
0.74540061 5.5439205 0.20102903
1.0471177 5.5507035 0.20079304
1.3505532 5.5385299 0.20095788
1.6332002 5.547524 0.20107993
1.9330337 5.5472417 0.20082235
2.2550569 5.5563817 0.20097955
2.5506978 5.5505519 0.2009719
2.8691158 5.5376539 0.20227094
3.1562359 5.5387616 0.20091426
3.4652395 5.5452266 0.20095243
3.7396414 5.5403605 0.20075125
4.0499697 5.5465374 0.20047915
4.3478718 5.5560579 0.20077358
4.6466985 5.5343547 0.20068088
4.9503522 5.538825 0.20077462
5.2539124 5.5337386 0.20067787
5.5579848 5.5411396 0.20080715
5.8502584 5.5616374 0.20073889
6.1438742 5.5500188 0.2006512
6.464788 5.5594749 0.20088054
6.7483015 5.5506544 0.20063862
7.0615668 5.5551867 0.20075828
7.356739 5.5540805 0.20195419
7.6397953 5.5723858 0.20405176
7.9262624 5.5563254 0.20478709
-7.9271669 5.8582954 0.20833133
-7.6202965 5.8396544 0.20264968
-7.3685632 5.8324289 0.20262794
-7.0542798 5.8603988 0.20000145
-6.7485075 5.8631186 0.20000137
-6.4635334 5.837244 0.20000143
-6.1404195 5.8271275 0.20000143
-5.8319421 5.8561482 0.20000146
-5.5147853 5.8463659 0.20469247
-5.2663136 5.8543649 0.20115747
-4.938467 5.8439465 0.20127228
-4.6507678 5.8615265 0.20091708
-4.3589125 5.832263 0.2010726
-4.0646071 5.85711 0.20094068
-3.7554083 5.8474979 0.20154113
-3.4520698 5.8538823 0.20084336
-3.1657763 5.8477168 0.20083271
-2.8349276 5.8746338 0.20105815
-2.5514426 5.8625574 0.20094866
-2.2564499 5.8659649 0.20111369
-1.9485993 5.8657212 0.20099033
-1.6565191 5.8542037 0.20109545
-1.3665162 5.8493786 0.20094697
-1.0543598 5.8469524 0.20104207
-0.74925703 5.8402863 0.20117377
-0.46485001 5.8443594 0.20078506
-0.13376968 5.8694758 0.2010013
0.15556934 5.8448591 0.20104587
0.43752292 5.8524599 0.201168
0.7618311 5.8658071 0.20105384
1.0431863 5.8478236 0.20111369
1.3595059 5.8376417 0.20106018
1.6570778 5.8669033 0.20109546
1.9472167 5.8418584 0.20123658
2.245548 5.8654351 0.20112248
2.5429873 5.854208 0.20102128
2.8674064 5.8472033 0.20154639
3.1525803 5.8578176 0.20087712
3.4490411 5.8326449 0.20089555
3.7586813 5.8493352 0.20068413
4.0485845 5.8519731 0.20074569
4.3387175 5.8471255 0.20046631
4.6526427 5.8558059 0.20079218
4.9498754 5.8529735 0.2007291
5.2512283 5.8452058 0.2009265
5.5617414 5.8373733 0.20059627
5.8507276 5.8492794 0.20090596
6.1547933 5.8291469 0.20071433
6.4404297 5.8512688 0.20078072
6.744967 5.8535566 0.20058598
7.0472326 5.8477445 0.20077322
7.362246 5.8468447 0.20176558
7.6242681 5.8571696 0.20314966
7.9375091 5.8412428 0.21205172
-7.9301701 6.181119 0.20684414
-7.6426973 6.1391439 0.20302299
-7.3879843 6.1370978 0.20475388
-7.052485 6.1480107 0.2000014
-6.7288356 6.1572232 0.20000139
-6.4365807 6.1523213 0.20000134
-6.1455564 6.1247344 0.20000127
-5.8504548 6.1521726 0.20000142
-5.5057545 6.1518092 0.20460424
-5.26191 6.148735 0.20104212
-4.9567666 6.1526871 0.201111
-4.6504803 6.1505599 0.20114742
-4.3602443 6.1616392 0.20083113
-4.0575647 6.155798 0.20099033
-3.764349 6.1407604 0.20111282
-3.4431224 6.1533284 0.20111369
-3.1513374 6.1663327 0.20089106
-2.8411744 6.1310954 0.20122004
-2.5603964 6.1436548 0.201158
-2.2402565 6.1558466 0.20107745
-1.9465446 6.1378984 0.20089144
-1.6441278 6.1446276 0.20094116
-1.3611066 6.1643801 0.20106582
-1.0499488 6.1450014 0.20106018
-0.75887531 6.1539245 0.20145392
-0.46006531 6.1228809 0.20092733
-0.14642256 6.1559329 0.20095319
0.1448532 6.1479049 0.20088768
0.45895615 6.1389284 0.20071727
0.7620343 6.1570673 0.20088181
1.0417228 6.1603646 0.20109509
1.3539904 6.1568022 0.20110999
1.6498911 6.161582 0.20091803
1.9522123 6.1511903 0.20105287
2.2558281 6.1629839 0.20109226
2.5533378 6.1740236 0.20088175
2.8537455 6.1328597 0.20267208
3.1578605 6.1443543 0.20067723
3.4505787 6.1406875 0.20089433
3.7538326 6.1524072 0.20095915
4.0622292 6.1555691 0.20067021
4.3574963 6.1323075 0.20063841
4.6545205 6.1422729 0.20059051
4.9475212 6.1536822 0.20096645
5.2584233 6.1569896 0.20057149
5.5591831 6.1560555 0.20048842
5.8503633 6.1506815 0.20063578
6.1461334 6.1485982 0.20078012
6.4653635 6.1585655 0.20070398
6.7715092 6.1416097 0.20077975
7.0435519 6.1548257 0.20085192
7.3694162 6.1300602 0.20296921
7.6212778 6.1571736 0.2025758
7.9125605 6.160594 0.20386158
-7.9271021 6.4329438 0.20666239
-7.6457725 6.4533529 0.20111328
-7.3832893 6.4545746 0.20473161
-7.0375175 6.44348 0.20000148
-6.7494287 6.4304776 0.20000148
-6.4388232 6.4485579 0.20000143
-6.1353769 6.4509563 0.20000142
-5.8580074 6.4442081 0.20000134
-5.539453 6.4312186 0.20723706
-5.2510018 6.4748573 0.20531912
-4.9549503 6.4549103 0.20120437
-4.6589851 6.4530945 0.20099129
-4.3486047 6.4779706 0.20106018
-4.0457587 6.442781 0.20125715
-3.76456 6.4540854 0.20087515
-3.4510043 6.4292493 0.20123029
-3.1493185 6.441649 0.20105334
-2.8572128 6.4497619 0.20093882
-2.5501661 6.4520946 0.20128252
-2.2383926 6.4477224 0.20112637
-1.9558287 6.4402409 0.20113394
-1.6461295 6.453639 0.20109546
-1.3610629 6.4453058 0.20106237
-1.0527934 6.4494882 0.20103158
-0.74683917 6.4334488 0.20112996
-0.45123893 6.479588 0.20283684
-0.14384922 6.4472804 0.20462778
0.14602971 6.4419465 0.20310149
0.44387016 6.4576793 0.20266142
0.7696057 6.4448972 0.20088077
1.0603585 6.4442296 0.20088907
1.3610553 6.4563208 0.20083113
1.6598634 6.4485235 0.20103978
1.9365665 6.4677343 0.20100142
2.2567115 6.4392433 0.20084286
2.5550489 6.4557161 0.20120744
2.8514647 6.4470706 0.20171432
3.1657598 6.4489508 0.20068932
3.4659808 6.442255 0.20073715
3.7536917 6.4396958 0.20055082
4.0457139 6.4461575 0.20074415
4.3415112 6.4493217 0.20080434
4.6539516 6.4530468 0.20056219
4.9512606 6.4574695 0.20063621
5.2619653 6.4515429 0.20071433
5.5425138 6.4496236 0.20068091
5.8432498 6.4518433 0.2005702
6.1471243 6.4505339 0.20084335
6.4570847 6.438446 0.20083457
6.7465239 6.4450235 0.20085487
7.0565672 6.4462652 0.20082694
7.3694248 6.4486876 0.20336582
7.6088376 6.4723558 0.20515907
7.94941 6.4611049 0.20872095
-7.9094439 6.7591038 0.2050931
-7.6397047 6.7671828 0.2016961
-7.3781047 6.7402191 0.20400779
-7.0522008 6.7367597 0.20000146
-6.7514496 6.7423687 0.20000148
-6.4461246 6.7448983 0.20000146
-6.1256833 6.7358932 0.2000014
-5.8618741 6.7401509 0.20000137
-5.523016 6.7540812 0.20569122
-5.2562432 6.7429609 0.20746845
-4.951705 6.7393064 0.20879224
-4.6481814 6.7445421 0.20462231
-4.3400331 6.7560334 0.20139658
-4.0576167 6.7457871 0.20334409
-3.766052 6.7376289 0.20109202
-3.4584725 6.7637587 0.20113932
-3.1438773 6.7609959 0.20106798
-2.8343856 6.7397871 0.20101263
-2.5427001 6.7250352 0.20124424
-2.2506373 6.7609739 0.20098874
-1.9481751 6.749465 0.2012329
-1.6496654 6.7532511 0.20101091
-1.3368369 6.7452178 0.20091279
-1.0351344 6.7562699 0.20199703
-0.74187535 6.777317 0.20407563
-0.46227294 6.752367 0.20491135
-0.15962657 6.7430148 0.20144564
0.14599091 6.7437067 0.20169887
0.45570874 6.7633462 0.20162714
0.74909884 6.7565117 0.2026539
1.040644 6.7554207 0.20211831
1.3371558 6.741581 0.20075136
1.6327661 6.748641 0.20091599
1.9336225 6.7437425 0.20081381
2.2614176 6.7524486 0.20076728
2.5601332 6.7464814 0.20084506
2.8640132 6.7490406 0.20150833
3.1622558 6.7390733 0.20060124
3.4558613 6.7609234 0.20079611
3.7492154 6.7499108 0.20089015
4.0427051 6.7628484 0.20080683
4.3547902 6.7429328 0.20089105
4.6484046 6.751442 0.20086785
4.9514403 6.7606421 0.20065671
5.2392211 6.7337604 0.20075125
5.5486569 6.7548513 0.20077462
5.8492956 6.7542272 0.20072621
6.145648 6.7514176 0.20064406
6.4426889 6.7456188 0.20075123
6.7423406 6.7454586 0.20064239
7.0441313 6.761013 0.20085159
7.3663578 6.7685323 0.20189805
7.6210675 6.7683396 0.20080984
7.9198542 6.7585297 0.2040855
-7.9139748 7.0527229 0.20368414
-7.6086249 7.0571976 0.205295
-7.3656116 7.06107 0.20313703
-7.0397496 7.0415902 0.20000145
-6.7508473 7.0446982 0.20000143
-6.4532118 7.046874 0.20000142
-6.161552 7.0603151 0.2000014
-5.8366385 7.0332065 0.20000139
-5.5267682 7.0342054 0.20636044
-5.2671027 7.0406408 0.20420963
-4.945199 7.0379868 0.20110661
-4.6495824 7.0147929 0.20278801
-4.3435097 7.0420895 0.20897789
-4.0699697 7.0538173 0.20638777
-3.7556984 7.0491056 0.20111412
-3.441268 7.0424891 0.20099033
-3.150001 7.0441494 0.20114422
-2.8508584 7.0507007 0.20099002
-2.5496216 7.057682 0.20101345
-2.2545698 7.0601144 0.20111465
-1.9523802 7.0527406 0.20097885
-1.6512252 7.0585155 0.20107676
-1.3481034 7.0483265 0.20102012
-1.0485487 7.0567141 0.20244235
-0.7417165 7.0428476 0.20132677
-0.44909775 7.0480976 0.20134898
-0.1483745 7.0605154 0.20147534
0.15647821 7.0558877 0.20146778
0.44884717 7.0368228 0.20146735
0.76151443 7.0529976 0.20336869
1.0393374 7.0399752 0.20236671
1.3467987 7.0334415 0.20110476
1.6440905 7.0512118 0.20082553
1.9458435 7.0427933 0.20111893
2.2487783 7.0534773 0.20074172
2.5654914 7.0509906 0.20131595
2.8535545 7.050324 0.20243065
3.1599412 7.0539145 0.20108391
3.444504 7.0564065 0.20091109
3.7540839 7.0402999 0.20082466
4.0390859 7.0525236 0.20062521
4.3382711 7.0484447 0.20073101
4.6380758 7.0523267 0.20063591
4.9423771 7.0489526 0.20086838
5.2570839 7.0401211 0.20064612
5.5554924 7.0546579 0.20073454
5.8511233 7.0503364 0.20079464
6.1420231 7.0411015 0.20068976
6.4516883 7.0417924 0.2005057
6.7547798 7.0435076 0.20085831
7.0426574 7.0505719 0.20088491
7.3782411 7.0405073 0.20327911
7.6268296 7.0249 0.20185265
7.9442096 7.0545044 0.21270479
-7.9329662 7.3413019 0.20902836
-7.6056676 7.3483863 0.20386147
-7.3693361 7.3504767 0.20325696
-7.0466628 7.3668952 0.20000145
-6.7523665 7.3459725 0.20000139
-6.4684744 7.3368011 0.2000014
-6.1519823 7.3502288 0.20000146
-5.855938 7.3413081 0.2000014
-5.5294971 7.3496079 0.20381783
-5.2706704 7.3562713 0.20485042
-4.9385047 7.3426142 0.2000013
-4.6459236 7.3352666 0.20000142
-4.3569012 7.3449426 0.20000149
-4.0468726 7.3476505 0.20351152
-3.7468605 7.3626618 0.20125681
-3.4403536 7.3435121 0.20092095
-3.1581304 7.3705235 0.20120825
-2.8582978 7.3615808 0.2011456
-2.5408568 7.3507233 0.20105283
-2.2500505 7.3327117 0.20094074
-1.9539957 7.3458591 0.20108376
-1.6565365 7.353447 0.20099157
-1.3546495 7.3475032 0.2009773
-1.0344819 7.3489394 0.20496896
-0.75208002 7.3518281 0.20138749
-0.45118058 7.348999 0.20137505
-0.14881389 7.3409996 0.20150116
0.1421143 7.3416986 0.20159492
0.45049387 7.3534579 0.20159493
0.75772601 7.3695107 0.2032584
1.030412 7.348299 0.20184591
1.3558369 7.357842 0.20081955
1.6538123 7.3371377 0.20085397
1.9507308 7.3537073 0.20121565
2.2473462 7.3537259 0.20095876
2.5670669 7.3496013 0.2006788
2.8564975 7.3475308 0.20223337
3.1556063 7.3512983 0.20076923
3.4563217 7.3367753 0.20073172
3.7445939 7.3330488 0.2005886
4.0607839 7.355442 0.20065582
4.3530297 7.3520412 0.20059536
4.6477017 7.3457499 0.20091648
4.9457998 7.347014 0.20068626
5.2410975 7.3388314 0.20049667
5.5595617 7.3435431 0.20079188
5.8613844 7.3529778 0.20088218
6.1520658 7.3550267 0.20074537
6.4508176 7.3570828 0.20069353
6.7388034 7.3391447 0.20060588
7.0475869 7.3496051 0.20088358
7.3563018 7.3341594 0.20253167
7.6278639 7.3497558 0.20299505
7.9394498 7.378293 0.20673111
-7.9306822 7.6261148 0.20850918
-7.6292386 7.6471891 0.20316961
-7.3582888 7.6482434 0.20386757
-7.0442395 7.6607566 0.20000148
-6.7408442 7.6595998 0.20000145
-6.4484844 7.6657887 0.20000148
-6.1317735 7.6381135 0.20000146
-5.848918 7.6517544 0.20000148
-5.5332851 7.6386042 0.20458789
-5.2578645 7.6422839 0.20315382
-4.9441414 7.6304226 0.20000146
-4.6437712 7.6490378 0.20000143
-4.3518357 7.6499534 0.20000146
-4.0549803 7.6415515 0.20659852
-3.7540426 7.6329451 0.20107742
-3.4595327 7.6378312 0.20081262
-3.1576991 7.6541843 0.20107131
-2.8529501 7.6637735 0.20081495
-2.5475099 7.6474171 0.20131844
-2.2319191 7.6600213 0.20077193
-1.9634265 7.6572442 0.2009588
-1.6447772 7.6506829 0.20081945
-1.3376024 7.6424575 0.20100127
-1.0382702 7.6574101 0.20273821
-0.74969482 7.628994 0.20154034
-0.45477691 7.6372585 0.20156427
-0.14562072 7.6444159 0.2013741
0.15232459 7.6506572 0.20151229
0.44205895 7.6711993 0.20142861
0.75032759 7.6592388 0.20388292
1.0447266 7.6617627 0.20171243
1.3462213 7.6434422 0.200758
1.6736091 7.6699333 0.2008386
1.9492851 7.6490498 0.20106667
2.242928 7.6469131 0.20103167
2.548636 7.6442137 0.20130131
2.850095 7.6435213 0.20215833
3.1586008 7.6491089 0.20045413
3.4464576 7.6394553 0.20084797
3.741118 7.6565824 0.20086239
4.0593867 7.6480641 0.20073894
4.3452826 7.651752 0.20066789
4.6530137 7.6457305 0.20061056
4.9524069 7.6473284 0.20087975
5.2437167 7.6521444 0.20070708
5.5433397 7.6569686 0.20073296
5.8462787 7.6515427 0.20081207
6.1357145 7.6505818 0.20077907
6.4550962 7.6472111 0.20066133
6.7429838 7.6476674 0.20077819
7.0527816 7.6610322 0.20093402
7.3604054 7.6446762 0.20225573
7.6614914 7.6592879 0.20082024
7.9409447 7.6351023 0.20769763
-7.9526153 7.9427991 0.2061964
-7.6210265 7.9736123 0.20647441
-7.3603482 7.939569 0.20171471
-7.0338984 7.9520822 0.20000149
-6.7456479 7.948657 0.20000149
-6.4531345 7.9545503 0.20000148
-6.1553626 7.9605722 0.20000143
-5.8611622 7.9450636 0.20000143
-5.5446887 7.95011 0.20442484
-5.2545309 7.9258046 0.20361222
-4.9537024 7.9449244 0.20000142
-4.6326332 7.9378057 0.20000142
-4.3398676 7.9510422 0.20000151
-4.0612335 7.9398193 0.20321371
-3.7473066 7.945138 0.20109551
-3.4579327 7.9568 0.20132281
-3.1483135 7.9547062 0.20115282
-2.8478119 7.9358039 0.20125447
-2.5565119 7.9286933 0.20124424
-2.2496631 7.9576273 0.20108517
-1.9611799 7.9449677 0.20071106
-1.6543629 7.9501696 0.20098829
-1.3542123 7.935298 0.20122986
-1.0534674 7.939209 0.20317537
-0.74778783 7.9474707 0.20520721
-0.46860439 7.9571815 0.20248573
-0.14667282 7.955019 0.20136964
0.15568446 7.9499149 0.20164546
0.44169632 7.9340324 0.20135975
0.73462802 7.9501419 0.20231774
1.0357047 7.9552941 0.20228077
1.3457586 7.9572849 0.2009809
1.6340587 7.9605803 0.20108572
1.9541254 7.9519944 0.20099135
2.2511337 7.9419837 0.20116973
2.5481346 7.9591584 0.20091438
2.8573849 7.9595008 0.20313562
3.1510937 7.9512472 0.20065153
3.4339285 7.9423027 0.20110042
3.7411263 7.9617295 0.20069885
4.0471091 7.9465313 0.20067562
4.3437185 7.9528546 0.20078811
4.6585393 7.9500332 0.20062809
4.9479313 7.9664993 0.20085534
5.2621574 7.9677396 0.20065446
5.5440192 7.9462223 0.20088647
5.8462963 7.946981 0.20056939
6.1511211 7.955399 0.20077394
6.4523754 7.9417033 0.20059565
6.7446008 7.942111 0.20067561
7.0558786 7.942596 0.20072705
7.3652358 7.9583554 0.20350592
7.6279316 7.9654946 0.2015121
7.9337344 7.9592047 0.20738731
-7.9374199 8.2795305 0.20675741
-7.6137195 8.263195 0.20256141
-7.3766866 8.2272177 0.20244777
-7.0580292 8.2516823 0.20000142
-6.7476249 8.252841 0.20000142
-6.4417558 8.2402267 0.20000146
-6.1647286 8.219635 0.20000148
-5.8684549 8.2562704 0.20000152
-5.5482106 8.2518148 0.20501931
-5.2570949 8.2523727 0.20388128
-4.9371133 8.2629137 0.20000148
-4.6417022 8.2339306 0.20000146
-4.3500051 8.268671 0.20000145
-4.0412087 8.2434483 0.20512737
-3.7357366 8.2623844 0.20074391
-3.4487414 8.2535515 0.20118816
-3.1671243 8.2421322 0.20066379
-2.8423924 8.2354422 0.20075136
-2.5442977 8.2493076 0.20112646
-2.2429714 8.2314205 0.20120405
-1.9456064 8.25278 0.20131454
-1.6428879 8.2546415 0.2012006
-1.3570743 8.2450809 0.20103073
-1.0453935 8.2451506 0.20116262
-0.74822325 8.2445612 0.20095922
-0.45622626 8.2374144 0.20350981
-0.14127444 8.2562761 0.20361605
0.15341331 8.2526026 0.20242733
0.4611899 8.242609 0.20328201
0.73755735 8.2260437 0.20244217
1.0343742 8.2412968 0.20126647
1.3416524 8.2590923 0.20098965
1.6460221 8.2590055 0.20111254
1.9538991 8.2457438 0.20138294
2.2586601 8.2688379 0.20085327
2.5630064 8.2561712 0.20109808
2.8661113 8.2424974 0.20177008
3.1615648 8.2393875 0.20073237
3.4579504 8.2360764 0.2008194
3.7369559 8.2413883 0.20066264
4.0507789 8.2452021 0.20064059
4.352942 8.2465677 0.20079972
4.6613488 8.2504053 0.20083201
4.9499602 8.2604351 0.20093043
5.2555728 8.2587366 0.20081705
5.5530124 8.2487326 0.20075734
5.8481855 8.2633953 0.20084335
6.1585107 8.244606 0.20084214
6.4374251 8.2411528 0.20075713
6.7506533 8.2513933 0.20072624
7.0459003 8.2521868 0.20065238
7.3591976 8.2560921 0.20294017
7.643074 8.2857351 0.20453814
7.9209733 8.2535639 0.2062299
-7.9292698 8.5688028 0.20838121
-7.5982652 8.5410891 0.2043138
-7.37183 8.5347452 0.20358354
-7.0532665 8.5359554 0.20000146
-6.763011 8.5638008 0.20000151
-6.4568119 8.5594196 0.20000145
-6.1682649 8.54739 0.20000149
-5.8409286 8.5411539 0.20000148
-5.5436325 8.5400572 0.20362118
-5.2649751 8.5517321 0.20414349
-4.9616408 8.5392103 0.20000148
-4.6583605 8.5489092 0.20000149
-4.3360672 8.548358 0.20000149
-4.0523853 8.5518103 0.20395008
-3.749876 8.5476656 0.20105289
-3.4539065 8.5416307 0.20088366
-3.1483603 8.5652733 0.2007813
-2.8522296 8.5347338 0.20094323
-2.5298011 8.5644054 0.20104629
-2.2482181 8.5780039 0.20101298
-1.949289 8.5649986 0.20097815
-1.6408315 8.5403824 0.20127578
-1.3538198 8.5419493 0.20092221
-1.0502291 8.5511007 0.20125128
-0.7574361 8.5574923 0.20139936
-0.46028498 8.5515518 0.20096008
-0.14605096 8.5387421 0.20183435
0.14232944 8.5400057 0.20199898
0.44698212 8.5436792 0.20110132
0.75870556 8.5627127 0.20118879
1.0631407 8.5583677 0.20116162
1.3546695 8.5457096 0.20083477
1.6508311 8.5584049 0.2011866
1.9411052 8.5457735 0.20091197
2.2728934 8.5729275 0.20214568
2.5390799 8.5492887 0.20365199
2.8494031 8.5457497 0.20165686
3.1392996 8.5526752 0.20057271
3.4509115 8.5513134 0.20087928
3.7510211 8.5470285 0.20063151
4.0458331 8.5316753 0.20066263
4.34833 8.556159 0.20070991
4.6473866 8.5407658 0.2008861
4.9461703 8.5521545 0.20070127
5.245863 8.5305748 0.20097496
5.5460114 8.5504313 0.20081516
5.8430853 8.5559673 0.20067722
6.1539631 8.5475283 0.20078942
6.4518437 8.5562334 0.20083196
6.7523389 8.546031 0.2008751
7.048811 8.5469542 0.20061187
7.3601484 8.5603533 0.20358144
7.6299286 8.5622807 0.20285031
7.931931 8.5440769 0.20765267
-7.9205275 8.8520269 0.20648728
-7.621531 8.8825064 0.20517687
-7.3639708 8.8637228 0.20447786
-7.0470223 8.8587627 0.20000145
-6.7462044 8.8220978 0.20000146
-6.4535022 8.8516731 0.20000148
-6.169116 8.8632631 0.20000148
-5.8779016 8.8436813 0.20000145
-5.5409818 8.8414154 0.20389408
-5.2527156 8.844347 0.20143533
-4.9578834 8.8508186 0.20000148
-4.6603212 8.8465567 0.20000146
-4.3558025 8.8511343 0.20000151
-4.0505986 8.8392391 0.20526084
-3.7538533 8.8431234 0.2009245
-3.451117 8.8602371 0.20106022
-3.1448803 8.8555851 0.20083298
-2.8371694 8.8507032 0.20129682
-2.5705469 8.8695087 0.20116043
-2.234941 8.843152 0.20092998
-1.9431911 8.8601093 0.200734
-1.653939 8.8635483 0.20114066
-1.34319 8.8456964 0.20085847
-1.0481139 8.843504 0.20110683
-0.75133431 8.8331547 0.20100474
-0.44542864 8.8679638 0.20124277
-0.14738443 8.8457851 0.2010013
0.1527396 8.8455658 0.20102496
0.43888286 8.8598528 0.20107672
0.75126851 8.8403845 0.2010514
1.0655473 8.8642483 0.20076667
1.3516245 8.8465519 0.20090148
1.6473613 8.8552761 0.20122233
1.9676162 8.8591166 0.20097962
2.2811968 8.8629704 0.20237011
2.5458894 8.8472071 0.20591958
2.8576882 8.8535404 0.20095456
3.1523116 8.8438463 0.20069158
3.4289551 8.8556061 0.20047083
3.7484825 8.8549614 0.20063539
4.0504913 8.8609409 0.20073171
4.3533835 8.8612871 0.20072849
4.6351991 8.8630466 0.20077808
4.9543777 8.8534422 0.20070283
5.2545366 8.8503637 0.20089108
5.5537524 8.8516903 0.20085472
5.8557162 8.8587084 0.20065334
6.1514673 8.8516321 0.20078813
6.4358473 8.843339 0.20088699
6.7592463 8.844101 0.20050971
7.0371351 8.8570833 0.20063594
7.3731427 8.849473 0.20353572
7.6149197 8.8710785 0.20279703
7.9233799 8.8391247 0.20569234
-7.9305401 9.1435537 0.20486379
-7.64498 9.1734686 0.20299055
-7.3815427 9.1588087 0.20392285
-7.0593252 9.139164 0.20000148
-6.7557664 9.1487837 0.20000148
-6.4629316 9.1361628 0.20000149
-6.1772709 9.1644793 0.20000149
-5.8566699 9.1651096 0.20000149
-5.5447268 9.1382465 0.20000146
-5.2412524 9.1405544 0.20000149
-4.9685578 9.1357632 0.20000143
-4.6485553 9.1396255 0.20000152
-4.3462405 9.1635303 0.20000146
-4.0474372 9.1594906 0.20349562
-3.7561574 9.1622057 0.2009452
-3.4465413 9.144145 0.20100138
-3.1495473 9.154871 0.201075
-2.8517561 9.1572247 0.20098928
-2.5538259 9.1469412 0.20102584
-2.253418 9.1512213 0.20093133
-1.937153 9.1406317 0.20089497
-1.6537935 9.1460924 0.20058899
-1.355652 9.1515188 0.20101303
-1.0479937 9.1456203 0.20113079
-0.74821395 9.1531887 0.20084405
-0.44769144 9.1129389 0.20099042
-0.1536614 9.1529112 0.20140706
0.15547183 9.1710634 0.20143531
0.46429676 9.1509418 0.20098922
0.7534126 9.1436205 0.20082486
1.0542845 9.1376181 0.20091908
1.3427036 9.1552105 0.20078549
1.6468602 9.1482601 0.20061357
1.9622134 9.1517048 0.20088559
2.2665842 9.153038 0.20154893
2.5495644 9.1551018 0.20487088
2.8647768 9.1446171 0.20076351
3.1439433 9.1411953 0.20081943
3.4336119 9.1500015 0.20054136
3.7508059 9.1503334 0.20075123
4.0402246 9.1437664 0.20081948
4.335319 9.1471109 0.20075658
4.6464143 9.1438293 0.20093045
4.9600677 9.1448221 0.20091198
5.2496881 9.1461058 0.2008238
5.5551958 9.1425743 0.20063539
5.8390861 9.1468668 0.2007848
6.1436348 9.1564312 0.20084678
6.4572101 9.1614723 0.20059665
6.7370071 9.1619444 0.20070037
7.0543156 9.1404305 0.20062108
7.3611522 9.1390829 0.20188788
7.6539116 9.186451 0.20512204
7.9345117 9.1508465 0.20710304
-7.9313602 9.4646626 0.20802005
-7.6230226 9.4595547 0.20579633
-7.3682904 9.4584217 0.2025618
-7.0567675 9.4404421 0.20000148
-6.7410393 9.4362402 0.20000152
-6.4569077 9.4622107 0.20000146
-6.1639895 9.4582033 0.20000151
-5.8484454 9.4318371 0.20000149
-5.559402 9.4452944 0.20000148
-5.242661 9.4532614 0.20000146
-4.9443207 9.4337187 0.20000143
-4.6370502 9.4535837 0.20000149
-4.351923 9.4667892 0.20000148
-4.0597539 9.4671307 0.20449013
-3.7494349 9.4419889 0.20139736
-3.4485092 9.443408 0.20096014
-3.1413841 9.4419546 0.20102677
-2.8580122 9.4533291 0.20097442
-2.5471404 9.4614916 0.20103361
-2.253602 9.4530468 0.20100144
-1.9589258 9.44835 0.20101094
-1.646448 9.4473696 0.20081383
-1.3530529 9.4490147 0.20103976
-1.0504063 9.4454699 0.20108007
-0.75358784 9.4475451 0.20105453
-0.45378092 9.4350061 0.20086806
-0.15235798 9.4615602 0.20108706
0.13587591 9.4535112 0.20107473
0.4619028 9.4442053 0.20088777
0.75562918 9.438447 0.20104632
1.0475242 9.4441776 0.20106862
1.3634452 9.453351 0.20080547
1.6329314 9.4516954 0.20095739
1.9503803 9.4495783 0.20103072
2.2725935 9.4391537 0.20142747
2.5509088 9.4551144 0.20500572
2.8544686 9.4640417 0.20093723
3.1454241 9.453063 0.20068055
3.4509079 9.4585724 0.20078814
3.7603362 9.4594202 0.20072351
4.0436444 9.4360676 0.20074558
4.3607345 9.4492168 0.2006737
4.657373 9.4594259 0.20072125
4.9441524 9.4633713 0.20064589
5.265245 9.4539375 0.20076206
5.5521412 9.4527073 0.20052426
5.8419604 9.4569864 0.20081742
6.1381631 9.4492111 0.20076491
6.4408484 9.4491892 0.2009448
6.7571454 9.4525719 0.20063151
7.0554733 9.4452448 0.20074506
7.3526683 9.4375982 0.20165189
7.6174817 9.4652948 0.20524563
7.9406934 9.4805145 0.21242514
-7.9281735 9.7807837 0.20954274
-7.606144 9.7401075 0.20470908
-7.3834114 9.7711525 0.20384444
-7.0457592 9.7345333 0.20000157
-6.7518492 9.7639027 0.20000158
-6.4321914 9.7479801 0.20000149
-6.1366749 9.7245636 0.20000151
-5.8386421 9.7569685 0.20000154
-5.5499496 9.761858 0.20000154
-5.2517862 9.7576313 0.20000154
-4.9386306 9.7532549 0.20000152
-4.6709657 9.7463255 0.20000151
-4.3414483 9.748662 0.20000152
-4.05513 9.7492352 0.20418501
-3.7449734 9.7511883 0.20089494
-3.454071 9.7546492 0.20102261
-3.1517453 9.7419491 0.20101395
-2.8368022 9.7531633 0.2009221
-2.5427868 9.7534275 0.20087045
-2.2441301 9.7524004 0.20127307
-1.9557137 9.7416182 0.20110136
-1.6411678 9.7635298 0.20106386
-1.3451047 9.7489662 0.20103259
-1.0538763 9.7516842 0.2012594
-0.76323116 9.7457638 0.20142987
-0.45833567 9.7406244 0.20108478
-0.14688568 9.7397318 0.20118596
0.143125 9.7578955 0.20121801
0.44647393 9.7514668 0.20113236
0.76186669 9.7535982 0.20156972
1.058666 9.7483482 0.20108461
1.3357303 9.7468586 0.2008429
1.6435533 9.761034 0.20077667
1.9381047 9.7440948 0.20086668
2.2692482 9.7461452 0.201208
2.5294347 9.738656 0.20501378
2.8485432 9.7472324 0.20081708
3.1436996 9.7475348 0.20053974
3.4647913 9.7581043 0.20083606
3.7526584 9.747241 0.20089842
4.0455446 9.7429581 0.20074505
4.3484349 9.7539663 0.20071551
4.6504245 9.7469397 0.20072539
4.9456239 9.7343178 0.20052923
5.2514977 9.7331944 0.2009353
5.556252 9.7412958 0.20087811
5.8544188 9.7594242 0.20082381
6.1430964 9.7448378 0.20072216
6.4510174 9.7593851 0.20066549
6.747436 9.7493429 0.20068093
7.0561199 9.7529345 0.20074466
7.3707867 9.7521839 0.202592
7.6156082 9.7471743 0.20368791
7.9416623 9.7434931 0.2108479
-7.9191179 10.034008 0.20759009
-7.6552286 10.060067 0.20297074
-7.3783007 10.051963 0.20462644
-7.0408239 10.062771 0.20000163
-6.7468419 10.038296 0.20000163
-6.4347353 10.040572 0.20000164
-6.1651883 10.068954 0.20000164
-5.8508587 10.059814 0.20000164
-5.5303016 10.056571 0.20000163
-5.261941 10.071035 0.20000161
-4.9278288 10.055268 0.20000163
-4.6524587 10.037225 0.20000164
-4.3537083 10.045125 0.20000164
-4.0541039 10.065882 0.20685305
-3.7432544 10.061588 0.20095274
-3.4660959 10.054814 0.20094526
-3.1311047 10.052919 0.20076983
-2.8479712 10.037575 0.2008764
-2.5457613 10.062983 0.20093898
-2.2537968 10.038973 0.20090769
-1.943831 10.047745 0.20096362
-1.6390665 10.040059 0.20110658
-1.3631976 10.051161 0.2010268
-1.0555404 10.037138 0.20138749
-0.74585998 10.05232 0.20145546
-0.47231731 10.048636 0.2014433
-0.15271369 10.060686 0.2013579
0.14848322 10.050956 0.20126702
0.46258438 10.052309 0.20157653
0.73566324 10.04034 0.20106021
1.032652 10.046119 0.20109752
1.3494314 10.064565 0.20101269
1.6579906 10.039493 0.20096254
1.9349688 10.054974 0.20089805
2.2625782 10.040202 0.20199409
2.5561666 10.048971 0.20486149
2.8545585 10.06039 0.20079331
3.1602216 10.051982 0.20086218
3.4528282 10.051162 0.20076931
3.7310755 10.048244 0.20073406
4.0477114 10.048118 0.20062435
4.3569036 10.046677 0.20075786
4.6495433 10.042865 0.20082703
4.9435306 10.049162 0.20046929
5.2568331 10.042149 0.20062633
5.5645118 10.043591 0.20077051
5.8546367 10.05311 0.20064415
6.1481781 10.049994 0.20075783
6.445281 10.039649 0.20074005
6.750062 10.05163 0.20065984
7.0574136 10.052673 0.20087719
7.368989 10.05504 0.20152077
7.5941086 10.050618 0.20726411
7.9241376 10.062447 0.20663661
-7.9418478 10.32675 0.20809551
-7.6096773 10.369682 0.20492023
-7.3550706 10.362285 0.20598924
-7.0445905 10.384395 0.20220943
-6.749651 10.369129 0.20267116
-6.4448237 10.368497 0.20438467
-6.1427488 10.360453 0.20337829
-5.8492455 10.360405 0.20437464
-5.5519099 10.348868 0.20235646
-5.254705 10.357454 0.20403823
-4.9475322 10.355969 0.20268273
-4.6505742 10.352581 0.20306531
-4.335897 10.356529 0.20224209
-4.054781 10.35282 0.20451923
-3.7533092 10.364843 0.20152932
-3.4578876 10.370126 0.20195413
-3.1609015 10.347549 0.20094134
-2.8512843 10.358793 0.20105299
-2.5506647 10.35114 0.20116819
-2.2539005 10.339716 0.20109826
-1.9563177 10.333758 0.20119503
-1.6660103 10.351275 0.20082501
-1.3594501 10.361542 0.20103954
-1.0577468 10.335135 0.20139651
-0.73627043 10.354708 0.20076065
-0.44770294 10.347406 0.20107569
-0.14126857 10.343328 0.2010884
0.15879475 10.355282 0.20137693
0.44113326 10.353377 0.20119435
0.74190545 10.352063 0.20097119
1.05853 10.341744 0.20148182
1.3511378 10.369665 0.20100158
1.6554635 10.355652 0.20102352
1.9496365 10.352455 0.20096023
2.2697515 10.348207 0.20102273
2.538233 10.359047 0.20631588
2.8540974 10.349248 0.2005969
3.1627624 10.344555 0.20063697
3.4608383 10.35585 0.20070842
3.7445638 10.360239 0.20058727
4.0556331 10.363127 0.20073904
4.355022 10.349775 0.20093699
4.6412306 10.36717 0.20069164
4.9487004 10.355309 0.20083474
5.2357731 10.357872 0.20077725
5.5414639 10.348478 0.20062523
5.8595533 10.347363 0.20084752
6.1512275 10.359962 0.20092867
6.4417334 10.343039 0.20100138
6.7499304 10.347123 0.20055698
7.0524158 10.35368 0.20079474
7.3564186 10.360138 0.20199932
7.6278687 10.346334 0.20319286
7.9464722 10.363824 0.20794125
-7.9300766 10.650275 0.20672075
-7.6361933 10.657146 0.20169947
-7.3587074 10.65141 0.20433317
-7.0262957 10.649019 0.20183964
-6.7470188 10.663156 0.20203577
-6.4518018 10.648889 0.20180605
-6.154736 10.63956 0.20199646
-5.8435478 10.655843 0.20143017
-5.5724783 10.656776 0.20179991
-5.265789 10.648413 0.20278569
-4.9548635 10.64196 0.20451932
-4.6684356 10.647717 0.20191264
-4.3546824 10.640015 0.20304659
-4.0440097 10.642532 0.20142245
-3.7553077 10.653104 0.20144188
-3.4519069 10.652477 0.20146488
-3.1669044 10.652905 0.20113021
-2.8383639 10.642947 0.20087801
-2.535332 10.635288 0.20087251
-2.2526944 10.648049 0.20111027
-1.955416 10.634443 0.20132722
-1.6583228 10.656022 0.20098944
-1.3350269 10.634123 0.20111041
-1.0554076 10.646971 0.20100161
-0.74062943 10.665064 0.20132308
-0.45107466 10.655444 0.20259188
-0.14216623 10.658821 0.2025456
0.16078071 10.665534 0.20225888
0.43767288 10.666381 0.20159334
0.7542426 10.667169 0.20125157
1.0578712 10.642898 0.20100148
1.3423027 10.633848 0.20136024
1.6482985 10.639213 0.20114766
1.9527063 10.662444 0.20124073
2.2641954 10.644882 0.20111312
2.5391595 10.648853 0.20432799
2.8575814 10.66608 0.20085175
3.1634135 10.65226 0.20078087
3.4464538 10.63499 0.20086579
3.7643988 10.635477 0.20088218
4.0427818 10.658714 0.20071825
4.3401418 10.655944 0.20067967
4.6497421 10.671418 0.2006287
4.9515758 10.644472 0.20072465
5.2313643 10.653804 0.20079391
5.5457339 10.644958 0.20081089
5.8466024 10.661691 0.2008156
6.1396527 10.643243 0.2008552
6.4611101 10.650764 0.20065241
6.7498331 10.648099 0.20057277
7.0377731 10.657533 0.20065008
7.3417311 10.662262 0.20261742
7.6349421 10.635015 0.20494479
7.9382086 10.64195 0.20946115
-7.9361334 11.001223 0.21255504
-7.627996 10.95025 0.20344247
-7.3685412 10.953439 0.20339997
-7.0472374 10.950017 0.20109242
-6.7392263 10.949604 0.20090438
-6.445684 10.960075 0.20117548
-6.1420474 10.941516 0.20090479
-5.8427095 10.94735 0.20092206
-5.570529 10.955655 0.20143016
-5.2699838 10.95785 0.20115049
-4.9531932 10.97133 0.20110373
-4.6456008 10.948413 0.20118628
-4.3560557 10.946893 0.20125742
-4.0417218 10.937058 0.20127335
-3.7462862 10.938357 0.20098799
-3.4621902 10.957367 0.20100157
-3.145472 10.95269 0.20118137
-2.8508241 10.954496 0.2007857
-2.554342 10.943858 0.20100154
-2.2564809 10.956959 0.20080918
-1.9537075 10.94716 0.20104235
-1.6470909 10.950621 0.20129776
-1.3540916 10.940556 0.20121507
-1.0566392 10.96037 0.20137309
-0.73969328 10.962068 0.20234175
-0.44840729 10.949903 0.20236996
-0.15257901 10.966221 0.20135143
0.13980503 10.946838 0.20152603
0.44448885 10.96163 0.20240501
0.73580176 10.946075 0.20214231
1.0579306 10.932418 0.20118685
1.3491465 10.958078 0.20111856
1.6512593 10.942785 0.20119545
1.9610876 10.951591 0.20075165
2.2607985 10.948891 0.20206678
2.5521932 10.930732 0.20591137
2.8521276 10.955409 0.20187165
3.1456635 10.946671 0.2029783
3.4594319 10.939282 0.20307727
3.7541373 10.955669 0.20230608
4.0549464 10.960654 0.20142746
4.3486257 10.951885 0.20268658
4.6619244 10.946852 0.20217612
4.9585505 10.94191 0.20341437
5.2461753 10.939732 0.20364104
5.5619364 10.940075 0.20180973
5.8521605 10.947012 0.20356314
6.1508126 10.947282 0.20222205
6.4568796 10.958385 0.20381801
6.7656322 10.954107 0.20291938
7.0465789 10.953378 0.20267591
7.3572807 10.961798 0.20451197
7.6744723 10.961231 0.20524932
7.9329095 10.94168 0.21137874
-7.9322972 11.25108 0.20752597
-7.6240797 11.27252 0.2023122
-7.37608 11.252018 0.20289817
-7.0618773 11.255891 0.20099024
-6.7543507 11.250854 0.20139596
-6.4532189 11.266027 0.20208701
-6.1467824 11.235346 0.20090528
-5.842535 11.236004 0.20138697
-5.5706024 11.244652 0.20119429
-5.249537 11.25739 0.20094451
-4.9534698 11.248176 0.20105802
-4.6370254 11.254272 0.20154214
-4.3540668 11.244086 0.20089816
-4.051033 11.240231 0.20111857
-3.7547266 11.258562 0.20107523
-3.4401484 11.262239 0.20101467
-3.1397691 11.230222 0.20111279
-2.8497961 11.247423 0.2006592
-2.546437 11.241596 0.20099092
-2.2427418 11.248153 0.20081402
-1.9441776 11.254758 0.20103027
-1.6599641 11.24638 0.20135564
-1.3468312 11.253161 0.20094891
-1.0536464 11.252553 0.20113106
-0.74753767 11.241761 0.2029358
-0.45567054 11.255707 0.20125337
-0.1438836 11.248424 0.20156957
0.14984386 11.243114 0.20140906
0.43885317 11.25148 0.2013258
0.75055176 11.241732 0.20272595
1.0439761 11.258402 0.20112669
1.3402573 11.259294 0.20111491
1.669657 11.258152 0.20150162
1.9509757 11.247515 0.20085466
2.2554634 11.253795 0.20310447
2.5532134 11.239295 0.20182593
2.8604791 11.233655 0.20202781
3.1505561 11.226825 0.20286527
3.4589231 11.232203 0.20232001
3.7575936 11.258371 0.20180942
4.0599079 11.244469 0.20352909
4.3393602 11.245395 0.20277543
4.6568508 11.258204 0.20279312
4.9596028 11.251987 0.2032177
5.2554569 11.260363 0.20346296
5.5609579 11.246608 0.20287004
5.863131 11.240883 0.20337141
6.1716104 11.246105 0.20394741
6.4501319 11.247623 0.2037984
6.7356701 11.235948 0.2028756
7.0398674 11.250233 0.20235075
7.3520875 11.244309 0.203714
7.6084838 11.257321 0.20564362
7.9318018 11.234189 0.20665157
-7.9378452 11.545302 0.20453827
-7.6517811 11.557834 0.20179041
-7.3661804 11.550694 0.2025432
-7.0516181 11.534473 0.20089449
-6.7365894 11.550919 0.20108978
-6.4472909 11.542596 0.20139025
-6.1550555 11.534338 0.20126297
-5.8466463 11.552195 0.20107767
-5.5912356 11.54646 0.20173743
-5.239141 11.564236 0.20115726
-4.9472694 11.562305 0.20136286
-4.6476865 11.54462 0.201051
-4.3456993 11.558997 0.20131008
-4.0554914 11.555733 0.20107296
-3.7500024 11.566897 0.20106211
-3.4500089 11.553334 0.20124625
-3.1622307 11.570378 0.20114589
-2.8495886 11.545573 0.20100154
-2.5591178 11.555462 0.20122136
-2.266422 11.55031 0.20113061
-1.932335 11.537875 0.2014288
-1.6518205 11.537118 0.20109357
-1.3491859 11.553603 0.20077808
-1.045427 11.544769 0.20172656
-0.75405192 11.550622 0.2022422
-0.44523248 11.561937 0.2018203
-0.15618001 11.554322 0.20162535
0.15481827 11.544924 0.20162432
0.44616303 11.552444 0.20146543
0.74476439 11.543751 0.20271291
1.0534085 11.562807 0.20177843
1.3423258 11.551774 0.20093706
1.6523255 11.550579 0.20121665
1.9286565 11.547354 0.20121576
2.2560558 11.550616 0.20101279
2.5563323 11.539302 0.20101207
2.853168 11.539519 0.2013588
3.1493413 11.560255 0.20088796
3.4378018 11.558699 0.2012767
3.7498424 11.55031 0.2017768
4.0460405 11.54745 0.20399101
4.3396039 11.539722 0.20267095
4.6494813 11.561202 0.20361067
4.9429002 11.549599 0.20321192
5.2385645 11.545731 0.20415464
5.5517612 11.543994 0.20451227
5.8368945 11.547865 0.20329657
6.1414976 11.554657 0.20490979
6.4493613 11.53686 0.20322272
6.7511573 11.547677 0.20381337
7.0592408 11.549395 0.2038845
7.3578396 11.550744 0.20421289
7.6541481 11.546061 0.20338008
7.9282799 11.548829 0.20765236
-7.9613953 11.832096 0.21108229
-7.6405787 11.854861 0.20256901
-7.3690252 11.846967 0.20263764
-7.0522456 11.862777 0.20099206
-6.7393603 11.838855 0.20106046
-6.4554291 11.832549 0.20119481
-6.158042 11.855478 0.20093262
-5.8428392 11.851908 0.20093773
-5.5723872 11.855566 0.20141993
-5.2660532 11.841101 0.2013749
-4.9715195 11.846412 0.20172429
-4.6257272 11.849701 0.20147577
-4.3579817 11.849961 0.20112669
-4.0470004 11.843174 0.2010328
-3.7493265 11.859653 0.20102434
-3.4445887 11.847238 0.20116168
-3.1626468 11.852258 0.2008803
-2.8579502 11.837691 0.2011859
-2.5492535 11.85118 0.20114768
-2.2451568 11.837977 0.20090152
-1.9336488 11.849534 0.20126121
-1.6465305 11.857859 0.20097838
-1.3384339 11.859331 0.20108974
-1.0592582 11.844071 0.20090778
-0.7507534 11.834309 0.20266286
-0.44898465 11.846723 0.20144889
-0.14012016 11.848483 0.20136726
0.14910159 11.850938 0.20151427
0.44859114 11.862523 0.20147032
0.74981606 11.851166 0.20260552
1.0660779 11.857109 0.20108379
1.3392013 11.853177 0.20091461
1.6419126 11.850156 0.20086327
1.9347007 11.84839 0.20128877
2.2400794 11.853761 0.20127426
2.5446916 11.835155 0.20090973
2.836179 11.840332 0.20106046
3.1407585 11.854915 0.20081595
3.4479864 11.861653 0.20130458
3.7482913 11.860641 0.20129706
4.0747209 11.842209 0.20196494
4.3542008 11.844815 0.20153742
4.6451664 11.856224 0.2026986
4.9437933 11.870209 0.20305587
5.2475929 11.847445 0.20319872
5.5390019 11.855268 0.20286562
5.844521 11.860733 0.20237705
6.1569815 11.856373 0.20370676
6.4559159 11.87091 0.20446707
6.7558012 11.861957 0.20247093
7.056469 11.847134 0.20304322
7.3617597 11.858456 0.20438156
7.5942316 11.831049 0.20413648
7.9430785 11.853853 0.21510009
-7.9047236 12.140824 0.20665263
-7.6259708 12.149245 0.2026827
-7.3523812 12.131378 0.20144486
-7.0553756 12.140393 0.20108952
-6.7580919 12.166493 0.20120774
-6.4421606 12.149478 0.20100158
-6.1515603 12.151027 0.20093355
-5.8599129 12.150342 0.20105152
-5.545588 12.150341 0.20109262
-5.2417951 12.153958 0.20090152
-4.9607043 12.16642 0.20091327
-4.6346955 12.146851 0.20146227
-4.3393421 12.142047 0.20070538
-4.0444064 12.150697 0.20096713
-3.743536 12.134446 0.20108402
-3.4474361 12.148846 0.20107059
-3.154917 12.164206 0.20107695
-2.8418651 12.144855 0.20095903
-2.561785 12.148582 0.20096153
-2.2565479 12.14458 0.20106827
-1.9358833 12.137154 0.20118555
-1.660675 12.165213 0.20121235
-1.3337061 12.144293 0.20113026
-1.054508 12.148276 0.20098853
-0.74870497 12.135454 0.20287777
-0.4619351 12.146865 0.20139165
-0.1378971 12.136491 0.20179234
0.14722005 12.157 0.20273449
0.44743857 12.15561 0.20163523
0.74408329 12.136603 0.20189445
1.055705 12.173706 0.20088798
1.3503791 12.153771 0.20108601
1.6524661 12.145299 0.20124909
1.9528073 12.159163 0.20098133
2.2543998 12.143112 0.20077381
2.5522268 12.13413 0.20088032
2.8398945 12.16875 0.20128739
3.1697998 12.137816 0.20106827
3.4406011 12.141342 0.20103179
3.7443759 12.144276 0.20105365
4.0543962 12.147091 0.20280024
4.3592567 12.14588 0.20144413
4.6457529 12.153402 0.20334023
4.9446597 12.14067 0.20131847
5.2497959 12.162832 0.20147422
5.5469618 12.14489 0.20152377
5.8447232 12.160774 0.2015961
6.1585054 12.15041 0.20140766
6.460248 12.145598 0.20132144
6.7547407 12.156425 0.20153327
7.0620503 12.146098 0.20130204
7.352766 12.141814 0.20263687
7.6131897 12.170324 0.20549129
7.9313889 12.135318 0.20755044
-7.9456692 12.437539 0.2104606
-7.6213732 12.4599 0.20621786
-7.3740439 12.465291 0.20567025
-7.0383983 12.479316 0.20384113
-6.7583065 12.464472 0.20296617
-6.4433861 12.457696 0.20406826
-6.156064 12.479178 0.20349126
-5.8361173 12.472157 0.20501553
-5.5658965 12.468117 0.20317522
-5.2581005 12.449602 0.20112248
-4.9473181 12.444608 0.20129898
-4.6503139 12.455306 0.2013188
-4.3450212 12.439725 0.20089819
-4.0496917 12.442738 0.20087253
-3.758292 12.456 0.2012822
-3.435216 12.448573 0.20096153
-3.1429522 12.446356 0.20088796
-2.8438544 12.430331 0.20101246
-2.5452359 12.449004 0.20076996
-2.2487824 12.448885 0.20066401
-1.9444685 12.456088 0.20109628
-1.6444541 12.454388 0.20126471
-1.354303 12.460635 0.20118688
-1.0544164 12.471234 0.20082577
-0.74063009 12.459033 0.20075983
-0.42002097 12.45418 0.20288411
-0.14213532 12.450686 0.20271844
0.12880945 12.449377 0.20334689
0.44286424 12.440907 0.20222507
0.74433237 12.448599 0.20093495
1.046998 12.441947 0.20110297
1.3400236 12.468381 0.20094542
1.6484809 12.462125 0.20134102
1.9527216 12.43618 0.20107695
2.2652802 12.44836 0.20110831
2.5548623 12.451857 0.20233396
2.8257596 12.467153 0.20304893
3.1516569 12.453783 0.20318307
3.4469409 12.455778 0.20300402
3.7783923 12.487132 0.20533329
4.052918 12.452638 0.20333625
4.3541989 12.446471 0.20128706
4.6539407 12.455495 0.20309609
4.9603291 12.445107 0.20156342
5.2508454 12.451509 0.2018989
5.5537496 12.442002 0.20169461
5.8517642 12.453413 0.20148668
6.1520066 12.449909 0.2013454
6.4521346 12.445183 0.2012706
6.7532778 12.453099 0.20153575
7.0702324 12.440722 0.201526
7.3630638 12.440742 0.20372808
7.6090956 12.424476 0.20578577
7.9124599 12.470606 0.20399033
-7.9615312 12.757568 0.21385485
-7.6122074 12.730361 0.20128347
-7.3519936 12.760664 0.20477781
-7.0446668 12.754539 0.20058191
-6.753511 12.737686 0.20050804
-6.4380021 12.748879 0.20060129
-6.1565466 12.761243 0.20076524
-5.8478398 12.750183 0.20295624
-5.5737181 12.749652 0.20351852
-5.2535067 12.756893 0.20124075
-4.9526739 12.750093 0.20090163
-4.6425648 12.740159 0.2012873
-4.3479481 12.759121 0.20102154
-4.0382905 12.74358 0.20099232
-3.7512736 12.760885 0.20104367
-3.457922 12.765053 0.20076907
-3.1414225 12.756061 0.20093895
-2.8475664 12.74718 0.20104817
-2.5439603 12.750254 0.20114771
-2.2465622 12.769353 0.20103383
-1.9345767 12.74675 0.20089357
-1.6377655 12.746591 0.20114015
-1.3581164 12.749715 0.20123874
-1.0459578 12.749263 0.20089126
-0.75583482 12.750424 0.2009133
-0.44665378 12.759464 0.20167552
-0.14149934 12.744035 0.20145513
0.152796 12.737439 0.20088391
0.43818364 12.749361 0.2014316
0.74507797 12.748281 0.20086329
1.0650826 12.763655 0.20081338
1.3534082 12.750968 0.2011192
1.6543955 12.74384 0.20124263
1.9494768 12.761484 0.20120163
2.2487578 12.750401 0.20109837
2.5409365 12.761941 0.20168021
2.849334 12.751539 0.20246275
3.1449156 12.752822 0.20192598
3.4483309 12.763612 0.20209859
3.7585213 12.750854 0.20338684
4.0633984 12.749909 0.20283319
4.3499222 12.761573 0.20142253
4.6446939 12.741185 0.20214297
4.9553537 12.757284 0.20162183
5.2507844 12.754018 0.20131725
5.5620151 12.748182 0.20173545
5.8638377 12.723522 0.20160347
6.1367474 12.746069 0.20143841
6.4482145 12.763233 0.20164925
6.7566051 12.743403 0.20163342
7.0451922 12.755759 0.20163544
7.3667369 12.756124 0.20334788
7.6243277 12.762447 0.20619491
7.9553823 12.755644 0.20892462
-7.9401255 13.067389 0.20882948
-7.6277514 13.033974 0.20184384
-7.3534198 13.040217 0.20383237
-7.0514688 13.052653 0.20064129
-6.7572522 13.052656 0.20044297
-6.4466314 13.050455 0.20049819
-6.1463494 13.052784 0.20055681
-5.8338609 13.054909 0.20344503
-5.5596981 13.056711 0.20294493
-5.2392111 13.054821 0.20382215
-4.9359684 13.079972 0.20563149
-4.6450934 13.065272 0.20167302
-4.3551373 13.059524 0.2008366
-4.0439034 13.060575 0.20089869
-3.7636678 13.034116 0.20119515
-3.4530301 13.02627 0.20101932
-3.1513295 13.043626 0.20102219
-2.8477793 13.055156 0.20093413
-2.5383651 13.048119 0.20080568
-2.2493854 13.052898 0.20097294
-1.9552155 13.053646 0.20102036
-1.6626338 13.053278 0.20093153
-1.3333149 13.034089 0.20135719
-1.0510834 13.056354 0.20114799
-0.75046563 13.04376 0.20098135
-0.46110463 13.045152 0.20125748
-0.13889115 13.040006 0.20120357
0.14304705 13.066271 0.2011399
0.43527287 13.054884 0.20127803
0.76123756 13.052999 0.20082724
1.0370233 13.059656 0.20102517
1.3498501 13.045061 0.20128581
1.6578337 13.041447 0.20078154
1.9552217 13.047149 0.20076753
2.2353156 13.038119 0.20115994
2.5728269 13.042089 0.20300211
2.8504565 13.05756 0.20484878
3.1382868 13.028666 0.20352203
3.4691148 13.043576 0.20568573
3.7536945 13.048111 0.20645453
4.0608468 13.052827 0.20235071
4.3518767 13.038354 0.20130673
4.6536341 13.058722 0.20242913
4.9489903 13.037477 0.20170544
5.2438006 13.053409 0.20123515
5.5447669 13.046044 0.20176616
5.8420906 13.051303 0.20156668
6.1669178 13.0493 0.20143142
6.460844 13.049217 0.20132491
6.7371993 13.052683 0.20144494
7.0501037 13.04254 0.20127794
7.3677001 13.060092 0.20461695
7.6292157 13.051886 0.20389272
7.9347897 13.054167 0.21144895
-7.9317927 13.33934 0.21148977
-7.6227627 13.33321 0.20270972
-7.3661256 13.348043 0.20532934
-7.0325556 13.340885 0.20539835
-6.7696633 13.34213 0.208159
-6.4450593 13.338658 0.20604561
-6.1562767 13.362861 0.20857726
-5.8350973 13.335898 0.20442311
-5.5643525 13.355545 0.20333733
-5.2526779 13.355481 0.2050371
-4.9484196 13.354526 0.2085356
-4.6377487 13.368986 0.20328
-4.3333349 13.337848 0.20089523
-4.0661144 13.343156 0.20109262
-3.7577019 13.350103 0.20104116
-3.4481273 13.338324 0.20131424
-3.1455455 13.353387 0.20115285
-2.8540173 13.354192 0.20115547
-2.5461574 13.367131 0.20108601
-2.2557576 13.34199 0.20098741
-1.960081 13.35825 0.20109534
-1.6689477 13.355832 0.20096155
-1.3443898 13.345572 0.20104237
-1.0425357 13.341495 0.20123497
-0.75359237 13.327701 0.20106095
-0.45794296 13.358392 0.20139621
-0.15989877 13.334743 0.20133942
0.146246 13.353968 0.20158854
0.44988066 13.36447 0.20168984
0.75814021 13.350054 0.20105655
1.0498741 13.332986 0.20134228
1.3455212 13.357888 0.20098905
1.6400819 13.366377 0.20079747
1.9412787 13.345223 0.20110053
2.2463653 13.354008 0.20102219
2.561605 13.352612 0.20339866
2.8593085 13.359349 0.20850199
3.1266842 13.352925 0.20082921
3.458782 13.341588 0.20327997
3.7435381 13.35182 0.20755474
4.0700235 13.350334 0.20161773
4.3562613 13.346189 0.20143735
4.6528568 13.334901 0.20245701
4.9638476 13.332865 0.20402196
5.2413249 13.332329 0.20275536
5.5433087 13.348287 0.20239958
5.8452001 13.335834 0.20363362
6.1540351 13.352551 0.20237581
6.4699402 13.337558 0.20394501
6.7492838 13.343952 0.20228532
7.0447216 13.34167 0.20379332
7.3419819 13.345862 0.20475133
7.6181922 13.365559 0.20542441
7.9273543 13.346825 0.20593834
-7.9370685 13.619713 0.20767248
-7.6086454 13.661457 0.20276734
-7.3581543 13.650331 0.20426187
-7.0282483 13.654114 0.20875992
-6.7976484 13.642281 0.210474
-6.4495425 13.642175 0.20138626
-6.1669044 13.649923 0.21400449
-5.857378 13.66046 0.20290104
-5.5624728 13.637182 0.20330089
-5.2508492 13.644952 0.20710044
-4.9496441 13.636925 0.20907938
-4.6531696 13.651887 0.20260738
-4.361557 13.647328 0.20074084
-4.0633535 13.647265 0.20093741
-3.7511508 13.649241 0.20101424
-3.4453735 13.646431 0.20113111
-3.1393673 13.646731 0.20100163
-2.8413689 13.64419 0.20095055
-2.5590458 13.648741 0.20094095
-2.2717478 13.650579 0.20122257
-1.957636 13.638567 0.20085882
-1.6456066 13.640537 0.20110799
-1.3604223 13.643731 0.20078944
-1.0445375 13.650808 0.20101374
-0.75434208 13.662283 0.20069632
-0.4299022 13.653316 0.20170951
-0.14030293 13.646276 0.20131606
0.1521481 13.660462 0.20145701
0.44777566 13.651464 0.20161866
0.7454409 13.659142 0.2010792
1.0568225 13.650304 0.20092711
1.3417087 13.642909 0.20100158
1.6551068 13.656407 0.20078525
1.9389653 13.66082 0.20098743
2.2423213 13.650334 0.20104659
2.5581622 13.650458 0.20189825
2.8541176 13.644114 0.20833784
3.1426377 13.653702 0.20102704
3.465014 13.644521 0.20423765
3.7432058 13.648629 0.20452623
4.0565548 13.662211 0.20268521
4.3655305 13.6507 0.20388003
4.6480074 13.650104 0.20408274
4.942893 13.653317 0.20408373
5.2509637 13.671318 0.2030555
5.5340571 13.655544 0.20332778
5.8564587 13.669594 0.2038018
6.1716366 13.654269 0.20356725
6.4570136 13.654248 0.20316908
6.7446232 13.655227 0.20213178
7.0644312 13.650877 0.20337744
7.3608203 13.660749 0.20396397
7.6119576 13.665334 0.20259264
7.9211073 13.660069 0.20715012
-7.9388242 13.963797 0.20836899
-7.6410055 13.927944 0.20069844
-7.3432627 13.926981 0.20835994
-7.0200291 13.921877 0.21293393
-6.7762332 13.942354 0.20946997
-6.4567738 13.929022 0.20423807
-6.1570244 13.931066 0.21469119
-5.8404903 13.911355 0.20711653
-5.5583286 13.925015 0.2056589
-5.2538943 13.926545 0.20683263
-4.9548664 13.913174 0.20802233
-4.6387253 13.926319 0.20623296
-4.3426008 13.938632 0.20241579
-4.0530748 13.938962 0.20446225
-3.7384198 13.943988 0.20424393
-3.4292576 13.95469 0.20405675
-3.1422136 13.933985 0.20374809
-2.8569849 13.930228 0.20571268
-2.5591207 13.922314 0.20353822
-2.2560744 13.922512 0.20492968
-1.9609133 13.934476 0.20325084
-1.656701 13.933911 0.20350425
-1.3489491 13.935285 0.20473672
-1.0426022 13.927139 0.20402181
-0.75314814 13.927494 0.20324102
-0.425188 13.915064 0.20265271
-0.13378695 13.932851 0.20378441
0.13514347 13.929994 0.20320965
0.45176458 13.919127 0.20449413
0.76643008 13.918128 0.20303169
1.0512373 13.949421 0.20540604
1.3425268 13.934033 0.2030583
1.6470283 13.923697 0.20296115
1.9431545 13.925695 0.20164235
2.2475703 13.9374 0.20335577
2.5623565 13.932686 0.20377325
2.8550878 13.931155 0.20678017
3.1403444 13.930758 0.20068352
3.458401 13.930389 0.20238982
3.7453816 13.921761 0.20896384
4.0474234 13.936494 0.20442979
